VERSION .7
FIELDS x y z
SIZE 4 4 4
TYPE F F F
COUNT 1 1 1
WIDTH 1469
HEIGHT 1
VIEWPOINT 0 0 0 1 0 0 0
POINTS 1469
DATA ascii
0.809016994375 4 0.587785252292
0.798635510047 4 0.601815023152
0.788010753607 4 0.615661475326
0.777145961457 4 0.62932039105
0.766044443119 4 0.642787609687
0.754709580223 4 0.656059028991
0.743144825477 4 0.669130606359
0.731353701619 4 0.681998360062
0.719339800339 4 0.694658370459
0.707106781187 4 0.707106781187
0.694658370459 4 0.719339800339
0.681998360063 4 0.731353701619
0.669130606359 4 0.743144825477
0.656059028991 4 0.754709580223
0.642787609687 4 0.766044443119
0.62932039105 4 0.777145961457
0.615661475326 4 0.788010753607
0.601815023152 4 0.798635510047
0.587785252292 4 0.809016994375
0.573576436351 4 0.819152044289
0.559192903471 4 0.829037572555
0.544639035015 4 0.838670567945
0.529919264233 4 0.848048096156
0.51503807491 4 0.857167300702
0.5 4 0.866025403784
0.484809620246 4 0.874619707139
0.469471562786 4 0.882947592859
0.45399049974 4 0.891006524188
0.438371146789 4 0.898794046299
0.422618261741 4 0.906307787037
0.406736643076 4 0.913545457643
0.390731128489 4 0.920504853452
0.374606593416 4 0.927183854567
0.358367949545 4 0.933580426497
0.342020143326 4 0.939692620786
0.325568154457 4 0.945518575599
0.309016994375 4 0.951056516295
0.292371704723 4 0.956304755963
0.275637355817 4 0.961261695938
0.258819045103 4 0.965925826289
0.2419218956 4 0.970295726276
0.224951054344 4 0.974370064785
0.207911690818 4 0.978147600734
0.190808995377 4 0.981627183448
0.173648177667 4 0.984807753012
0.15643446504 4 0.987688340595
0.13917310096 4 0.990268068742
0.121869343405 4 0.992546151641
0.104528463268 4 0.994521895368
0.0871557427477 4 0.996194698092
0.0697564737441 4 0.99756405026
0.0523359562429 4 0.998629534755
0.0348994967025 4 0.999390827019
0.0174524064373 4 0.999847695156
-9.80336419954e-16 4 1.0
-0.0174524064373 4 0.999847695156
-0.0348994967025 4 0.999390827019
-0.0523359562429 4 0.998629534755
-0.0697564737441 4 0.99756405026
-0.0871557427477 4 0.996194698092
-0.104528463268 4 0.994521895368
-0.121869343405 4 0.992546151641
-0.13917310096 4 0.990268068742
-0.15643446504 4 0.987688340595
-0.173648177667 4 0.984807753012
-0.190808995377 4 0.981627183448
-0.207911690818 4 0.978147600734
-0.224951054344 4 0.974370064785
-0.2419218956 4 0.970295726276
-0.258819045103 4 0.965925826289
-0.275637355817 4 0.961261695938
-0.292371704723 4 0.956304755963
-0.309016994375 4 0.951056516295
-0.325568154457 4 0.945518575599
-0.342020143326 4 0.939692620786
-0.358367949545 4 0.933580426497
-0.374606593416 4 0.927183854567
-0.390731128489 4 0.920504853452
-0.406736643076 4 0.913545457643
-0.422618261741 4 0.906307787037
-0.438371146789 4 0.898794046299
-0.45399049974 4 0.891006524188
-0.469471562786 4 0.882947592859
-0.484809620246 4 0.874619707139
-0.5 4 0.866025403784
-0.51503807491 4 0.857167300702
-0.529919264233 4 0.848048096156
-0.544639035015 4 0.838670567945
-0.559192903471 4 0.829037572555
-0.573576436351 4 0.819152044289
-0.587785252292 4 0.809016994375
-0.601815023152 4 0.798635510047
-0.615661475326 4 0.788010753607
-0.62932039105 4 0.777145961457
-0.642787609687 4 0.766044443119
-0.656059028991 4 0.754709580223
-0.669130606359 4 0.743144825477
-0.681998360062 4 0.731353701619
-0.694658370459 4 0.719339800339
-0.707106781187 4 0.707106781187
-0.719339800339 4 0.694658370459
-0.731353701619 4 0.681998360062
-0.743144825477 4 0.669130606359
-0.754709580223 4 0.656059028991
-0.766044443119 4 0.642787609687
-0.777145961457 4 0.62932039105
-0.788010753607 4 0.615661475326
-0.798635510047 4 0.601815023152
-0.809016994375 4 0.587785252292
-0.819152044289 4 0.573576436351
-0.829037572555 4 0.559192903471
-0.838670567945 4 0.544639035015
-0.848048096156 4 0.529919264233
-0.857167300702 4 0.51503807491
-0.866025403784 4 0.5
-0.874619707139 4 0.484809620246
-0.882947592859 4 0.469471562786
-0.891006524188 4 0.45399049974
-0.898794046299 4 0.438371146789
-0.906307787037 4 0.422618261741
-0.913545457643 4 0.406736643076
-0.920504853452 4 0.390731128489
-0.927183854567 4 0.374606593416
-0.933580426497 4 0.358367949545
-0.939692620786 4 0.342020143326
-0.945518575599 4 0.325568154457
-0.951056516295 4 0.309016994375
-0.956304755963 4 0.292371704723
-0.961261695938 4 0.275637355817
-0.965925826289 4 0.258819045103
-0.970295726276 4 0.2419218956
-0.974370064785 4 0.224951054344
-0.978147600734 4 0.207911690818
-0.981627183448 4 0.190808995377
-0.984807753012 4 0.173648177667
-0.987688340595 4 0.15643446504
-0.990268068742 4 0.13917310096
-0.992546151641 4 0.121869343405
-0.994521895368 4 0.104528463268
-0.996194698092 4 0.0871557427477
-0.99756405026 4 0.0697564737441
-0.998629534755 4 0.0523359562429
-0.999390827019 4 0.0348994967025
-0.999847695156 4 0.0174524064373
-1.0 4 8.57252759403e-16
-0.999847695156 4 -0.0174524064373
-0.999390827019 4 -0.0348994967025
-0.998629534755 4 -0.0523359562429
-0.99756405026 4 -0.0697564737441
-0.996194698092 4 -0.0871557427477
-0.994521895368 4 -0.104528463268
-0.992546151641 4 -0.121869343405
-0.990268068742 4 -0.13917310096
-0.987688340595 4 -0.15643446504
-0.984807753012 4 -0.173648177667
-0.981627183448 4 -0.190808995377
-0.978147600734 4 -0.207911690818
-0.974370064785 4 -0.224951054344
-0.970295726276 4 -0.2419218956
-0.965925826289 4 -0.258819045103
-0.961261695938 4 -0.275637355817
-0.956304755963 4 -0.292371704723
-0.951056516295 4 -0.309016994375
-0.945518575599 4 -0.325568154457
-0.939692620786 4 -0.342020143326
-0.933580426497 4 -0.358367949545
-0.927183854567 4 -0.374606593416
-0.920504853452 4 -0.390731128489
-0.913545457643 4 -0.406736643076
-0.906307787037 4 -0.422618261741
-0.898794046299 4 -0.438371146789
-0.891006524188 4 -0.45399049974
-0.882947592859 4 -0.469471562786
-0.874619707139 4 -0.484809620246
-0.866025403784 4 -0.5
-0.857167300702 4 -0.51503807491
-0.848048096156 4 -0.529919264233
-0.838670567945 4 -0.544639035015
-0.829037572555 4 -0.559192903471
-0.819152044289 4 -0.573576436351
-0.809016994375 4 -0.587785252292
-0.798635510047 4 -0.601815023152
-0.788010753607 4 -0.615661475326
-0.777145961457 4 -0.62932039105
-0.766044443119 4 -0.642787609687
-0.754709580223 4 -0.656059028991
-0.743144825477 4 -0.669130606359
-0.731353701619 4 -0.681998360062
-0.719339800339 4 -0.694658370459
-0.707106781187 4 -0.707106781187
-0.694658370459 4 -0.719339800339
-0.681998360062 4 -0.731353701619
-0.669130606359 4 -0.743144825477
-0.656059028991 4 -0.754709580223
-0.642787609687 4 -0.766044443119
-0.62932039105 4 -0.777145961457
-0.615661475326 4 -0.788010753607
-0.601815023152 4 -0.798635510047
-0.587785252292 4 -0.809016994375
-0.573576436351 4 -0.819152044289
-0.559192903471 4 -0.829037572555
-0.544639035015 4 -0.838670567945
-0.529919264233 4 -0.848048096156
-0.51503807491 4 -0.857167300702
-0.5 4 -0.866025403784
-0.484809620246 4 -0.874619707139
-0.469471562786 4 -0.882947592859
-0.45399049974 4 -0.891006524188
-0.438371146789 4 -0.898794046299
-0.422618261741 4 -0.906307787037
-0.406736643076 4 -0.913545457643
-0.390731128489 4 -0.920504853452
-0.374606593416 4 -0.927183854567
-0.358367949545 4 -0.933580426497
-0.342020143326 4 -0.939692620786
-0.325568154457 4 -0.945518575599
-0.309016994375 4 -0.951056516295
-0.292371704723 4 -0.956304755963
-0.275637355817 4 -0.961261695938
-0.258819045103 4 -0.965925826289
-0.2419218956 4 -0.970295726276
-0.224951054344 4 -0.974370064785
-0.207911690818 4 -0.978147600734
-0.190808995377 4 -0.981627183448
-0.173648177667 4 -0.984807753012
-0.15643446504 4 -0.987688340595
-0.13917310096 4 -0.990268068742
-0.121869343405 4 -0.992546151641
-0.104528463268 4 -0.994521895368
-0.0871557427477 4 -0.996194698092
-0.0697564737441 4 -0.99756405026
-0.0523359562429 4 -0.998629534755
-0.0348994967025 4 -0.999390827019
-0.0174524064373 4 -0.999847695156
8.5787174004e-16 4 -1.0
0.0174524064373 4 -0.999847695156
0.0348994967025 4 -0.999390827019
0.0523359562429 4 -0.998629534755
0.0697564737441 4 -0.99756405026
0.0871557427477 4 -0.996194698092
0.104528463268 4 -0.994521895368
0.121869343405 4 -0.992546151641
0.13917310096 4 -0.990268068742
0.15643446504 4 -0.987688340595
0.173648177667 4 -0.984807753012
0.190808995377 4 -0.981627183448
0.207911690818 4 -0.978147600734
0.224951054344 4 -0.974370064785
0.2419218956 4 -0.970295726276
0.258819045103 4 -0.965925826289
0.275637355817 4 -0.961261695938
0.292371704723 4 -0.956304755963
0.309016994375 4 -0.951056516295
0.325568154457 4 -0.945518575599
0.342020143326 4 -0.939692620786
0.358367949545 4 -0.933580426497
0.374606593416 4 -0.927183854567
0.390731128489 4 -0.920504853452
0.406736643076 4 -0.913545457643
0.422618261741 4 -0.906307787037
0.438371146789 4 -0.898794046299
0.45399049974 4 -0.891006524188
0.469471562786 4 -0.882947592859
0.484809620246 4 -0.874619707139
0.5 4 -0.866025403784
0.51503807491 4 -0.857167300702
0.529919264233 4 -0.848048096156
0.544639035015 4 -0.838670567945
0.559192903471 4 -0.829037572555
0.573576436351 4 -0.819152044289
0.587785252292 4 -0.809016994375
0.601815023152 4 -0.798635510047
0.615661475326 4 -0.788010753607
0.62932039105 4 -0.777145961457
0.642787609687 4 -0.766044443119
0.656059028991 4 -0.754709580223
0.669130606359 4 -0.743144825477
0.681998360062 4 -0.731353701619
0.694658370459 4 -0.719339800339
0.707106781187 4 -0.707106781187
0.719339800339 4 -0.694658370459
0.731353701619 4 -0.681998360062
0.743144825477 4 -0.669130606359
0.754709580223 4 -0.656059028991
0.766044443119 4 -0.642787609687
0.777145961457 4 -0.62932039105
0.788010753607 4 -0.615661475326
0.798635510047 4 -0.601815023152
0.809016994375 4 -0.587785252292
0.819152044289 4 -0.573576436351
0.829037572555 4 -0.559192903471
0.838670567945 4 -0.544639035015
0.848048096156 4 -0.529919264233
0.857167300702 4 -0.51503807491
0.866025403784 4 -0.5
0.874619707139 4 -0.484809620246
0.882947592859 4 -0.469471562786
0.891006524188 4 -0.45399049974
0.898794046299 4 -0.438371146789
0.906307787037 4 -0.422618261741
0.913545457643 4 -0.406736643076
0.920504853452 4 -0.390731128489
0.927183854567 4 -0.374606593416
0.933580426497 4 -0.358367949545
0.939692620786 4 -0.342020143326
0.945518575599 4 -0.325568154457
0.951056516295 4 -0.309016994375
0.956304755963 4 -0.292371704723
0.961261695938 4 -0.275637355817
0.965925826289 4 -0.258819045103
0.970295726276 4 -0.2419218956
0.974370064785 4 -0.224951054344
0.978147600734 4 -0.207911690818
0.981627183448 4 -0.190808995377
0.984807753012 4 -0.173648177667
0.987688340595 4 -0.15643446504
0.990268068742 4 -0.13917310096
0.992546151641 4 -0.121869343405
0.994521895368 4 -0.104528463268
0.996194698092 4 -0.0871557427477
0.99756405026 4 -0.0697564737441
0.998629534755 4 -0.0523359562429
0.999390827019 4 -0.0348994967025
0.999847695156 4 -0.0174524064373
1.0 5 -9.79717439318e-16
0.999847695156 5 0.0174524064373
0.999390827019 5 0.0348994967025
0.998629534755 5 0.0523359562429
0.99756405026 5 0.0697564737441
0.996194698092 5 0.0871557427477
0.994521895368 5 0.104528463268
0.992546151641 5 0.121869343405
0.990268068742 5 0.13917310096
0.987688340595 5 0.15643446504
0.984807753012 5 0.173648177667
0.981627183448 5 0.190808995377
0.978147600734 5 0.207911690818
0.974370064785 5 0.224951054344
0.970295726276 5 0.2419218956
0.965925826289 5 0.258819045103
0.961261695938 5 0.275637355817
0.956304755963 5 0.292371704723
0.951056516295 5 0.309016994375
0.945518575599 5 0.325568154457
0.939692620786 5 0.342020143326
0.933580426497 5 0.358367949545
0.927183854567 5 0.374606593416
0.920504853452 5 0.390731128489
0.913545457643 5 0.406736643076
0.906307787037 5 0.422618261741
0.898794046299 5 0.438371146789
0.891006524188 5 0.45399049974
0.882947592859 5 0.469471562786
0.874619707139 5 0.484809620246
0.866025403784 5 0.5
0.857167300702 5 0.51503807491
0.848048096156 5 0.529919264233
0.838670567945 5 0.544639035015
0.829037572555 5 0.559192903471
0.819152044289 5 0.573576436351
0.809016994375 5 0.587785252292
0.798635510047 5 0.601815023152
0.788010753607 5 0.615661475326
0.777145961457 5 0.62932039105
0.766044443119 5 0.642787609687
0.754709580223 5 0.656059028991
0.743144825477 5 0.669130606359
0.731353701619 5 0.681998360062
0.719339800339 5 0.694658370459
0.707106781187 5 0.707106781187
0.694658370459 5 0.719339800339
0.681998360062 5 0.731353701619
0.669130606359 5 0.743144825477
0.656059028991 5 0.754709580223
0.642787609687 5 0.766044443119
0.62932039105 5 0.777145961457
0.615661475326 5 0.788010753607
0.601815023152 5 0.798635510047
0.587785252292 5 0.809016994375
0.573576436351 5 0.819152044289
0.559192903471 5 0.829037572555
0.544639035015 5 0.838670567945
0.529919264233 5 0.848048096156
0.51503807491 5 0.857167300702
0.5 5 0.866025403784
0.484809620246 5 0.874619707139
0.469471562786 5 0.882947592859
0.45399049974 5 0.891006524188
0.438371146789 5 0.898794046299
0.422618261741 5 0.906307787037
0.406736643076 5 0.913545457643
0.390731128489 5 0.920504853452
0.374606593416 5 0.927183854567
0.358367949545 5 0.933580426497
0.342020143326 5 0.939692620786
0.325568154457 5 0.945518575599
0.309016994375 5 0.951056516295
0.292371704723 5 0.956304755963
0.275637355817 5 0.961261695938
0.258819045103 5 0.965925826289
0.2419218956 5 0.970295726276
0.224951054344 5 0.974370064785
0.207911690818 5 0.978147600734
0.190808995377 5 0.981627183448
0.173648177667 5 0.984807753012
0.15643446504 5 0.987688340595
0.13917310096 5 0.990268068742
0.121869343405 5 0.992546151641
0.104528463268 5 0.994521895368
0.0871557427477 5 0.996194698092
0.0697564737441 5 0.99756405026
0.0523359562429 5 0.998629534755
0.0348994967025 5 0.999390827019
0.0174524064373 5 0.999847695156
-7.35407060125e-16 5 1.0
-0.0174524064373 5 0.999847695156
-0.0348994967025 5 0.999390827019
-0.0523359562429 5 0.998629534755
-0.0697564737441 5 0.99756405026
-0.0871557427477 5 0.996194698092
-0.104528463268 5 0.994521895368
-0.121869343405 5 0.992546151641
-0.13917310096 5 0.990268068742
-0.15643446504 5 0.987688340595
-0.173648177667 5 0.984807753012
-0.190808995377 5 0.981627183448
-0.207911690818 5 0.978147600734
-0.224951054344 5 0.974370064785
-0.2419218956 5 0.970295726276
-0.258819045103 5 0.965925826289
-0.275637355817 5 0.961261695938
-0.292371704723 5 0.956304755963
-0.309016994375 5 0.951056516295
-0.325568154457 5 0.945518575599
-0.342020143326 5 0.939692620786
-0.358367949545 5 0.933580426497
-0.374606593416 5 0.927183854567
-0.390731128489 5 0.920504853452
-0.406736643076 5 0.913545457643
-0.422618261741 5 0.906307787037
-0.438371146789 5 0.898794046299
-0.45399049974 5 0.891006524188
-0.469471562786 5 0.882947592859
-0.484809620246 5 0.874619707139
-0.5 5 0.866025403784
-0.51503807491 5 0.857167300702
-0.529919264233 5 0.848048096156
-0.544639035015 5 0.838670567945
-0.559192903471 5 0.829037572555
-0.573576436351 5 0.819152044289
-0.587785252292 5 0.809016994375
-0.601815023152 5 0.798635510047
-0.615661475326 5 0.788010753607
-0.62932039105 5 0.777145961457
-0.642787609687 5 0.766044443119
-0.656059028991 5 0.754709580223
-0.669130606359 5 0.743144825477
-0.681998360062 5 0.731353701619
-0.694658370459 5 0.719339800339
-0.707106781187 5 0.707106781187
-0.719339800339 5 0.694658370459
-0.731353701619 5 0.681998360062
-0.743144825477 5 0.669130606359
-0.754709580223 5 0.656059028991
-0.766044443119 5 0.642787609687
-0.777145961457 5 0.62932039105
-0.788010753607 5 0.615661475326
-0.798635510047 5 0.601815023152
-0.809016994375 5 0.587785252292
-0.819152044289 5 0.573576436351
-0.829037572555 5 0.559192903471
-0.838670567945 5 0.544639035015
-0.848048096156 5 0.529919264233
-0.857167300702 5 0.51503807491
-0.866025403784 5 0.5
-0.874619707139 5 0.484809620246
-0.882947592859 5 0.469471562786
-0.891006524188 5 0.45399049974
-0.898794046299 5 0.438371146789
-0.906307787037 5 0.422618261741
-0.913545457643 5 0.406736643076
-0.920504853452 5 0.390731128489
-0.927183854567 5 0.374606593416
-0.933580426497 5 0.358367949545
-0.939692620786 5 0.342020143326
-0.945518575599 5 0.325568154457
-0.951056516295 5 0.309016994375
-0.956304755963 5 0.292371704723
-0.961261695938 5 0.275637355817
-0.965925826289 5 0.258819045103
-0.970295726276 5 0.2419218956
-0.974370064785 5 0.224951054344
-0.978147600734 5 0.207911690818
-0.981627183448 5 0.190808995377
-0.984807753012 5 0.173648177667
-0.987688340595 5 0.15643446504
-0.990268068742 5 0.13917310096
-0.992546151641 5 0.121869343405
-0.994521895368 5 0.104528463268
-0.996194698092 5 0.0871557427477
-0.99756405026 5 0.0697564737441
-0.998629534755 5 0.0523359562429
-0.999390827019 5 0.0348994967025
-0.999847695156 5 0.0174524064373
-1.0 5 1.10218211923e-15
-0.999847695156 5 -0.0174524064373
-0.999390827019 5 -0.0348994967025
-0.998629534755 5 -0.0523359562429
-0.99756405026 5 -0.0697564737441
-0.996194698092 5 -0.0871557427477
-0.994521895368 5 -0.104528463268
-0.992546151641 5 -0.121869343405
-0.990268068742 5 -0.13917310096
-0.987688340595 5 -0.15643446504
-0.984807753012 5 -0.173648177667
-0.981627183448 5 -0.190808995377
-0.978147600734 5 -0.207911690818
-0.974370064785 5 -0.224951054344
-0.970295726276 5 -0.2419218956
-0.965925826289 5 -0.258819045103
-0.961261695938 5 -0.275637355817
-0.956304755963 5 -0.292371704723
-0.951056516295 5 -0.309016994375
-0.945518575599 5 -0.325568154457
-0.939692620786 5 -0.342020143326
-0.933580426497 5 -0.358367949545
-0.927183854567 5 -0.374606593416
-0.920504853452 5 -0.390731128489
-0.913545457643 5 -0.406736643076
-0.906307787037 5 -0.422618261741
-0.898794046299 5 -0.438371146789
-0.891006524188 5 -0.45399049974
-0.882947592859 5 -0.469471562786
-0.874619707139 5 -0.484809620246
-0.866025403784 5 -0.5
-0.857167300702 5 -0.51503807491
-0.848048096156 5 -0.529919264233
-0.838670567945 5 -0.544639035015
-0.829037572555 5 -0.559192903471
-0.819152044289 5 -0.573576436351
-0.809016994375 5 -0.587785252292
-0.798635510047 5 -0.601815023152
-0.788010753607 5 -0.615661475326
-0.777145961457 5 -0.62932039105
-0.766044443119 5 -0.642787609687
-0.754709580223 5 -0.656059028991
-0.743144825477 5 -0.669130606359
-0.731353701619 5 -0.681998360062
-0.719339800339 5 -0.694658370459
-0.707106781187 5 -0.707106781187
-0.694658370459 5 -0.719339800339
-0.681998360062 5 -0.731353701619
-0.669130606359 5 -0.743144825477
-0.656059028991 5 -0.754709580223
-0.642787609687 5 -0.766044443119
-0.62932039105 5 -0.777145961457
-0.615661475326 5 -0.788010753607
-0.601815023152 5 -0.798635510047
-0.587785252292 5 -0.809016994375
-0.573576436351 5 -0.819152044289
-0.559192903471 5 -0.829037572555
-0.544639035015 5 -0.838670567945
-0.529919264233 5 -0.848048096156
-0.51503807491 5 -0.857167300702
-0.5 5 -0.866025403784
-0.484809620246 5 -0.874619707139
-0.469471562786 5 -0.882947592859
-0.45399049974 5 -0.891006524188
-0.438371146789 5 -0.898794046299
-0.422618261741 5 -0.906307787037
-0.406736643076 5 -0.913545457643
-0.390731128489 5 -0.920504853452
-0.374606593416 5 -0.927183854567
-0.358367949545 5 -0.933580426497
-0.342020143326 5 -0.939692620786
-0.325568154457 5 -0.945518575599
-0.309016994375 5 -0.951056516295
-0.292371704723 5 -0.956304755963
-0.275637355817 5 -0.961261695938
-0.258819045103 5 -0.965925826289
-0.2419218956 5 -0.970295726276
-0.224951054344 5 -0.974370064785
-0.207911690818 5 -0.978147600734
-0.190808995377 5 -0.981627183448
-0.173648177667 5 -0.984807753012
-0.15643446504 5 -0.987688340595
-0.13917310096 5 -0.990268068742
-0.121869343405 5 -0.992546151641
-0.104528463268 5 -0.994521895368
-0.0871557427477 5 -0.996194698092
-0.0697564737441 5 -0.99756405026
-0.0523359562429 5 -0.998629534755
-0.0348994967025 5 -0.999390827019
-0.0174524064373 5 -0.999847695156
6.1294238021e-16 5 -1.0
0.0174524064373 5 -0.999847695156
0.0348994967025 5 -0.999390827019
0.0523359562429 5 -0.998629534755
0.0697564737441 5 -0.99756405026
0.0871557427477 5 -0.996194698092
0.104528463268 5 -0.994521895368
0.121869343405 5 -0.992546151641
0.13917310096 5 -0.990268068742
0.15643446504 5 -0.987688340595
0.173648177667 5 -0.984807753012
0.190808995377 5 -0.981627183448
0.207911690818 5 -0.978147600734
0.224951054344 5 -0.974370064785
0.2419218956 5 -0.970295726276
0.258819045103 5 -0.965925826289
0.275637355817 5 -0.961261695938
0.292371704723 5 -0.956304755963
0.309016994375 5 -0.951056516295
0.325568154457 5 -0.945518575599
0.342020143326 5 -0.939692620786
0.358367949545 5 -0.933580426497
0.374606593416 5 -0.927183854567
0.390731128489 5 -0.920504853452
0.406736643076 5 -0.913545457643
0.422618261741 5 -0.906307787037
0.438371146789 5 -0.898794046299
0.45399049974 5 -0.891006524188
0.469471562786 5 -0.882947592859
0.484809620246 5 -0.874619707139
0.5 5 -0.866025403784
0.51503807491 5 -0.857167300702
0.529919264233 5 -0.848048096156
0.544639035015 5 -0.838670567945
0.559192903471 5 -0.829037572555
0.573576436351 5 -0.819152044289
0.587785252292 5 -0.809016994375
0.601815023152 5 -0.798635510047
0.615661475326 5 -0.788010753607
0.62932039105 5 -0.777145961457
0.642787609687 5 -0.766044443119
0.656059028991 5 -0.754709580223
0.669130606359 5 -0.743144825477
0.681998360062 5 -0.731353701619
0.694658370459 5 -0.719339800339
0.707106781187 5 -0.707106781187
0.719339800339 5 -0.694658370459
0.731353701619 5 -0.681998360062
0.743144825477 5 -0.669130606359
0.754709580223 5 -0.656059028991
0.766044443119 5 -0.642787609687
0.777145961457 5 -0.62932039105
0.788010753607 5 -0.615661475326
0.798635510047 5 -0.601815023152
0.809016994375 5 -0.587785252292
0.819152044289 5 -0.573576436351
0.829037572555 5 -0.559192903471
0.838670567945 5 -0.544639035015
0.848048096156 5 -0.529919264233
0.857167300702 5 -0.51503807491
0.866025403784 5 -0.5
0.874619707139 5 -0.484809620246
0.882947592859 5 -0.469471562786
0.891006524188 5 -0.45399049974
0.898794046299 5 -0.438371146789
0.906307787037 5 -0.422618261741
0.913545457643 5 -0.406736643076
0.920504853452 5 -0.390731128489
0.927183854567 5 -0.374606593416
0.933580426497 5 -0.358367949545
0.939692620786 5 -0.342020143326
0.945518575599 5 -0.325568154457
0.951056516295 5 -0.309016994375
0.956304755963 5 -0.292371704723
0.961261695938 5 -0.275637355817
0.965925826289 5 -0.258819045103
0.970295726276 5 -0.2419218956
0.974370064785 5 -0.224951054344
0.978147600734 5 -0.207911690818
0.981627183448 5 -0.190808995377
0.984807753012 5 -0.173648177667
0.987688340595 5 -0.15643446504
0.990268068742 5 -0.13917310096
0.992546151641 5 -0.121869343405
0.994521895368 5 -0.104528463268
0.996194698092 5 -0.0871557427477
0.99756405026 5 -0.0697564737441
0.998629534755 5 -0.0523359562429
0.999390827019 5 -0.0348994967025
0.999847695156 5 -0.0174524064373
1.0 6 -1.22464679915e-15
0.999847695156 6 0.0174524064373
0.999390827019 6 0.0348994967025
0.998629534755 6 0.0523359562429
0.99756405026 6 0.0697564737441
0.996194698092 6 0.0871557427477
0.994521895368 6 0.104528463268
0.992546151641 6 0.121869343405
0.990268068742 6 0.13917310096
0.987688340595 6 0.15643446504
0.984807753012 6 0.173648177667
0.981627183448 6 0.190808995377
0.978147600734 6 0.207911690818
0.974370064785 6 0.224951054344
0.970295726276 6 0.2419218956
0.965925826289 6 0.258819045103
0.961261695938 6 0.275637355817
0.956304755963 6 0.292371704723
0.951056516295 6 0.309016994375
0.945518575599 6 0.325568154457
0.939692620786 6 0.342020143326
0.933580426497 6 0.358367949545
0.927183854567 6 0.374606593416
0.920504853452 6 0.390731128489
0.913545457643 6 0.406736643076
0.906307787037 6 0.422618261741
0.898794046299 6 0.438371146789
0.891006524188 6 0.45399049974
0.882947592859 6 0.469471562786
0.874619707139 6 0.484809620246
0.866025403784 6 0.5
0.857167300702 6 0.51503807491
0.848048096156 6 0.529919264233
0.838670567945 6 0.544639035015
0.829037572555 6 0.559192903471
0.819152044289 6 0.573576436351
0.809016994375 6 0.587785252292
0.798635510047 6 0.601815023152
0.788010753607 6 0.615661475326
0.777145961457 6 0.62932039105
0.766044443119 6 0.642787609687
0.754709580223 6 0.656059028991
0.743144825477 6 0.669130606359
0.731353701619 6 0.681998360062
0.719339800339 6 0.694658370459
0.707106781187 6 0.707106781187
0.694658370459 6 0.719339800339
0.681998360062 6 0.731353701619
0.669130606359 6 0.743144825477
0.656059028991 6 0.754709580223
0.642787609687 6 0.766044443119
0.62932039105 6 0.777145961457
0.615661475326 6 0.788010753607
0.601815023152 6 0.798635510047
0.587785252292 6 0.809016994375
0.573576436351 6 0.819152044289
0.559192903471 6 0.829037572555
0.544639035015 6 0.838670567945
0.529919264233 6 0.848048096156
0.51503807491 6 0.857167300702
0.5 6 0.866025403784
0.484809620246 6 0.874619707139
0.469471562786 6 0.882947592859
0.45399049974 6 0.891006524188
0.438371146789 6 0.898794046299
0.422618261741 6 0.906307787037
0.406736643076 6 0.913545457643
0.390731128489 6 0.920504853452
0.374606593416 6 0.927183854567
0.358367949545 6 0.933580426497
0.342020143326 6 0.939692620786
0.325568154457 6 0.945518575599
0.309016994375 6 0.951056516295
0.292371704723 6 0.956304755963
0.275637355817 6 0.961261695938
0.258819045103 6 0.965925826289
0.2419218956 6 0.970295726276
0.224951054344 6 0.974370064785
0.207911690818 6 0.978147600734
0.190808995377 6 0.981627183448
0.173648177667 6 0.984807753012
0.15643446504 6 0.987688340595
0.13917310096 6 0.990268068742
0.121869343405 6 0.992546151641
0.104528463268 6 0.994521895368
0.0871557427477 6 0.996194698092
0.0697564737441 6 0.99756405026
0.0523359562429 6 0.998629534755
0.0348994967025 6 0.999390827019
0.0174524064373 6 0.999847695156
-4.90477700296e-16 6 1.0
-0.0174524064373 6 0.999847695156
-0.0348994967025 6 0.999390827019
-0.0523359562429 6 0.998629534755
-0.0697564737441 6 0.99756405026
-0.0871557427477 6 0.996194698092
-0.104528463268 6 0.994521895368
-0.121869343405 6 0.992546151641
-0.13917310096 6 0.990268068742
-0.15643446504 6 0.987688340595
-0.173648177667 6 0.984807753012
-0.190808995377 6 0.981627183448
-0.207911690818 6 0.978147600734
-0.224951054344 6 0.974370064785
-0.2419218956 6 0.970295726276
-0.258819045103 6 0.965925826289
-0.275637355817 6 0.961261695938
-0.292371704723 6 0.956304755963
-0.309016994375 6 0.951056516295
-0.325568154457 6 0.945518575599
-0.342020143326 6 0.939692620786
-0.358367949545 6 0.933580426497
-0.374606593416 6 0.927183854567
-0.390731128489 6 0.920504853452
-0.406736643076 6 0.913545457643
-0.422618261741 6 0.906307787037
-0.438371146789 6 0.898794046299
-0.45399049974 6 0.891006524188
-0.469471562786 6 0.882947592859
-0.484809620246 6 0.874619707139
-0.5 6 0.866025403784
-0.51503807491 6 0.857167300702
-0.529919264233 6 0.848048096156
-0.544639035015 6 0.838670567945
-0.559192903471 6 0.829037572555
-0.573576436351 6 0.819152044289
-0.587785252292 6 0.809016994375
-0.601815023152 6 0.798635510047
-0.615661475326 6 0.788010753607
-0.62932039105 6 0.777145961457
-0.642787609687 6 0.766044443119
-0.656059028991 6 0.754709580223
-0.669130606359 6 0.743144825477
-0.681998360062 6 0.731353701619
-0.694658370459 6 0.719339800339
-0.707106781187 6 0.707106781187
-0.719339800339 6 0.694658370459
-0.731353701619 6 0.681998360062
-0.743144825477 6 0.669130606359
-0.754709580223 6 0.656059028991
-0.766044443119 6 0.642787609687
-0.777145961457 6 0.62932039105
-0.788010753607 6 0.615661475326
-0.798635510047 6 0.601815023152
-0.809016994375 6 0.587785252292
-0.819152044289 6 0.573576436351
-0.829037572555 6 0.559192903471
-0.838670567945 6 0.544639035015
-0.848048096156 6 0.529919264233
-0.857167300702 6 0.51503807491
-0.866025403784 6 0.5
-0.874619707139 6 0.484809620246
-0.882947592859 6 0.469471562786
-0.891006524188 6 0.45399049974
-0.898794046299 6 0.438371146789
-0.906307787037 6 0.422618261741
-0.913545457643 6 0.406736643076
-0.920504853452 6 0.390731128489
-0.927183854567 6 0.374606593416
-0.933580426497 6 0.358367949545
-0.939692620786 6 0.342020143326
-0.945518575599 6 0.325568154457
-0.951056516295 6 0.309016994375
-0.956304755963 6 0.292371704723
-0.961261695938 6 0.275637355817
-0.965925826289 6 0.258819045103
-0.970295726276 6 0.2419218956
-0.974370064785 6 0.224951054344
-0.978147600734 6 0.207911690818
-0.981627183448 6 0.190808995377
-0.984807753012 6 0.173648177667
-0.987688340595 6 0.15643446504
-0.990268068742 6 0.13917310096
-0.992546151641 6 0.121869343405
-0.994521895368 6 0.104528463268
-0.996194698092 6 0.0871557427477
-0.99756405026 6 0.0697564737441
-0.998629534755 6 0.0523359562429
-0.999390827019 6 0.0348994967025
-0.999847695156 6 0.0174524064373
-1.0 6 -2.20560219974e-15
-0.999847695156 6 -0.0174524064373
-0.999390827019 6 -0.0348994967025
-0.998629534755 6 -0.0523359562429
-0.99756405026 6 -0.0697564737441
-0.996194698092 6 -0.0871557427477
-0.994521895368 6 -0.104528463268
-0.992546151641 6 -0.121869343405
-0.990268068742 6 -0.13917310096
-0.987688340595 6 -0.15643446504
-0.984807753012 6 -0.173648177667
-0.981627183448 6 -0.190808995377
-0.978147600734 6 -0.207911690818
-0.974370064785 6 -0.224951054344
-0.970295726276 6 -0.2419218956
-0.965925826289 6 -0.258819045103
-0.961261695938 6 -0.275637355817
-0.956304755963 6 -0.292371704723
-0.951056516295 6 -0.309016994375
-0.945518575599 6 -0.325568154457
-0.939692620786 6 -0.342020143326
-0.933580426497 6 -0.358367949545
-0.927183854567 6 -0.374606593416
-0.920504853452 6 -0.390731128489
-0.913545457643 6 -0.406736643076
-0.906307787037 6 -0.422618261741
-0.898794046299 6 -0.438371146789
-0.891006524188 6 -0.45399049974
-0.882947592859 6 -0.469471562786
-0.874619707139 6 -0.484809620246
-0.866025403784 6 -0.5
-0.857167300702 6 -0.51503807491
-0.848048096156 6 -0.529919264233
-0.838670567945 6 -0.544639035015
-0.829037572555 6 -0.559192903471
-0.819152044289 6 -0.573576436351
-0.809016994375 6 -0.587785252292
-0.798635510047 6 -0.601815023152
-0.788010753607 6 -0.615661475326
-0.777145961457 6 -0.62932039105
-0.766044443119 6 -0.642787609687
-0.754709580223 6 -0.656059028991
-0.743144825477 6 -0.669130606359
-0.731353701619 6 -0.681998360062
-0.719339800339 6 -0.694658370459
-0.707106781187 6 -0.707106781187
-0.694658370459 6 -0.719339800339
-0.681998360063 6 -0.731353701619
-0.669130606359 6 -0.743144825477
-0.656059028991 6 -0.754709580223
-0.642787609687 6 -0.766044443119
-0.62932039105 6 -0.777145961457
-0.615661475326 6 -0.788010753607
-0.601815023152 6 -0.798635510047
-0.587785252292 6 -0.809016994375
-0.573576436351 6 -0.819152044289
-0.559192903471 6 -0.829037572555
-0.544639035015 6 -0.838670567945
-0.529919264233 6 -0.848048096156
-0.51503807491 6 -0.857167300702
-0.5 6 -0.866025403784
-0.484809620246 6 -0.874619707139
-0.469471562786 6 -0.882947592859
-0.45399049974 6 -0.891006524188
-0.438371146789 6 -0.898794046299
-0.422618261741 6 -0.906307787037
-0.406736643076 6 -0.913545457643
-0.390731128489 6 -0.920504853452
-0.374606593416 6 -0.927183854567
-0.358367949545 6 -0.933580426497
-0.342020143326 6 -0.939692620786
-0.325568154457 6 -0.945518575599
-0.309016994375 6 -0.951056516295
-0.292371704723 6 -0.956304755963
-0.275637355817 6 -0.961261695938
-0.258819045103 6 -0.965925826289
-0.2419218956 6 -0.970295726276
-0.224951054344 6 -0.974370064785
-0.207911690818 6 -0.978147600734
-0.190808995377 6 -0.981627183448
-0.173648177667 6 -0.984807753012
-0.15643446504 6 -0.987688340595
-0.13917310096 6 -0.990268068742
-0.121869343405 6 -0.992546151641
-0.104528463268 6 -0.994521895368
-0.0871557427477 6 -0.996194698092
-0.0697564737441 6 -0.99756405026
-0.0523359562429 6 -0.998629534755
-0.0348994967025 6 -0.999390827019
-0.0174524064373 6 -0.999847695156
-3.18470065842e-15 6 -1.0
0.0174524064373 6 -0.999847695156
0.0348994967025 6 -0.999390827019
0.0523359562429 6 -0.998629534755
0.0697564737441 6 -0.99756405026
0.0871557427477 6 -0.996194698092
0.104528463268 6 -0.994521895368
0.121869343405 6 -0.992546151641
0.13917310096 6 -0.990268068742
0.15643446504 6 -0.987688340595
0.173648177667 6 -0.984807753012
0.190808995377 6 -0.981627183448
0.207911690818 6 -0.978147600734
0.224951054344 6 -0.974370064785
0.2419218956 6 -0.970295726276
0.258819045103 6 -0.965925826289
0.275637355817 6 -0.961261695938
0.292371704723 6 -0.956304755963
0.309016994375 6 -0.951056516295
0.325568154457 6 -0.945518575599
0.342020143326 6 -0.939692620786
0.358367949545 6 -0.933580426497
0.374606593416 6 -0.927183854567
0.390731128489 6 -0.920504853452
0.406736643076 6 -0.913545457643
0.422618261741 6 -0.906307787037
0.438371146789 6 -0.898794046299
0.45399049974 6 -0.891006524188
0.469471562786 6 -0.882947592859
0.484809620246 6 -0.874619707139
0.5 6 -0.866025403784
0.51503807491 6 -0.857167300702
0.529919264233 6 -0.848048096156
0.544639035015 6 -0.838670567945
0.559192903471 6 -0.829037572555
0.573576436351 6 -0.819152044289
0.587785252292 6 -0.809016994375
0.601815023152 6 -0.798635510047
0.615661475326 6 -0.788010753607
0.62932039105 6 -0.777145961457
0.642787609687 6 -0.766044443119
0.656059028991 6 -0.754709580223
0.669130606359 6 -0.743144825477
0.681998360062 6 -0.731353701619
0.694658370459 6 -0.719339800339
0.707106781187 6 -0.707106781187
0.719339800339 6 -0.694658370459
0.731353701619 6 -0.681998360062
0.743144825477 6 -0.669130606359
0.754709580223 6 -0.656059028991
0.766044443119 6 -0.642787609687
0.777145961457 6 -0.62932039105
0.788010753607 6 -0.615661475326
0.798635510047 6 -0.601815023152
0.809016994375 6 -0.587785252292
0.819152044289 6 -0.573576436351
0.829037572555 6 -0.559192903471
0.838670567945 6 -0.544639035015
0.848048096156 6 -0.529919264233
0.857167300702 6 -0.51503807491
0.866025403784 6 -0.5
0.874619707139 6 -0.484809620246
0.882947592859 6 -0.469471562786
0.891006524188 6 -0.45399049974
0.898794046299 6 -0.438371146789
0.906307787037 6 -0.422618261741
0.913545457643 6 -0.406736643076
0.920504853452 6 -0.390731128489
0.927183854567 6 -0.374606593416
0.933580426497 6 -0.358367949545
0.939692620786 6 -0.342020143326
0.945518575599 6 -0.325568154457
0.951056516295 6 -0.309016994375
0.956304755963 6 -0.292371704723
0.961261695938 6 -0.275637355817
0.965925826289 6 -0.258819045103
0.970295726276 6 -0.2419218956
0.974370064785 6 -0.224951054344
0.978147600734 6 -0.207911690818
0.981627183448 6 -0.190808995377
0.984807753012 6 -0.173648177667
0.987688340595 6 -0.15643446504
0.990268068742 6 -0.13917310096
0.992546151641 6 -0.121869343405
0.994521895368 6 -0.104528463268
0.996194698092 6 -0.0871557427477
0.99756405026 6 -0.0697564737441
0.998629534755 6 -0.0523359562429
0.999390827019 6 -0.0348994967025
0.999847695156 6 -0.0174524064373
1.0 7 -1.46957615898e-15
0.999847695156 7 0.0174524064373
0.999390827019 7 0.0348994967025
0.998629534755 7 0.0523359562429
0.99756405026 7 0.0697564737441
0.996194698092 7 0.0871557427477
0.994521895368 7 0.104528463268
0.992546151641 7 0.121869343405
0.990268068742 7 0.13917310096
0.987688340595 7 0.15643446504
0.984807753012 7 0.173648177667
0.981627183448 7 0.190808995377
0.978147600734 7 0.207911690818
0.974370064785 7 0.224951054344
0.970295726276 7 0.2419218956
0.965925826289 7 0.258819045103
0.961261695938 7 0.275637355817
0.956304755963 7 0.292371704723
0.951056516295 7 0.309016994375
0.945518575599 7 0.325568154457
0.939692620786 7 0.342020143326
0.933580426497 7 0.358367949545
0.927183854567 7 0.374606593416
0.920504853452 7 0.390731128489
0.913545457643 7 0.406736643076
0.906307787037 7 0.422618261741
0.898794046299 7 0.438371146789
0.891006524188 7 0.45399049974
0.882947592859 7 0.469471562786
0.874619707139 7 0.484809620246
0.866025403784 7 0.5
0.857167300702 7 0.51503807491
0.848048096156 7 0.529919264233
0.838670567945 7 0.544639035015
0.829037572555 7 0.559192903471
0.819152044289 7 0.573576436351
0.809016994375 7 0.587785252292
0.798635510047 7 0.601815023152
0.788010753607 7 0.615661475326
0.777145961457 7 0.62932039105
0.766044443119 7 0.642787609687
0.754709580223 7 0.656059028991
0.743144825477 7 0.669130606359
0.731353701619 7 0.681998360062
0.719339800339 7 0.694658370459
0.707106781187 7 0.707106781187
0.694658370459 7 0.719339800339
0.681998360062 7 0.731353701619
0.669130606359 7 0.743144825477
0.656059028991 7 0.754709580223
0.642787609687 7 0.766044443119
0.62932039105 7 0.777145961457
0.615661475326 7 0.788010753607
0.601815023152 7 0.798635510047
0.587785252292 7 0.809016994375
0.573576436351 7 0.819152044289
0.559192903471 7 0.829037572555
0.544639035015 7 0.838670567945
0.529919264233 7 0.848048096156
0.51503807491 7 0.857167300702
0.5 7 0.866025403784
0.484809620246 7 0.874619707139
0.469471562786 7 0.882947592859
0.45399049974 7 0.891006524188
0.438371146789 7 0.898794046299
0.422618261741 7 0.906307787037
0.406736643076 7 0.913545457643
0.390731128489 7 0.920504853452
0.374606593416 7 0.927183854567
0.358367949545 7 0.933580426497
0.342020143326 7 0.939692620786
0.325568154457 7 0.945518575599
0.309016994375 7 0.951056516295
0.292371704723 7 0.956304755963
0.275637355817 7 0.961261695938
0.258819045103 7 0.965925826289
0.2419218956 7 0.970295726276
0.224951054344 7 0.974370064785
0.207911690818 7 0.978147600734
0.190808995377 7 0.981627183448
0.173648177667 7 0.984807753012
0.15643446504 7 0.987688340595
0.13917310096 7 0.990268068742
0.121869343405 7 0.992546151641
0.104528463268 7 0.994521895368
0.0871557427477 7 0.996194698092
0.0697564737441 7 0.99756405026
0.0523359562429 7 0.998629534755
0.0348994967025 7 0.999390827019
0.0174524064373 7 0.999847695156
-2.45548340466e-16 7 1.0
-0.0174524064373 7 0.999847695156
-0.0348994967025 7 0.999390827019
-0.0523359562429 7 0.998629534755
-0.0697564737441 7 0.99756405026
-0.0871557427477 7 0.996194698092
-0.104528463268 7 0.994521895368
-0.121869343405 7 0.992546151641
-0.13917310096 7 0.990268068742
-0.15643446504 7 0.987688340595
-0.173648177667 7 0.984807753012
-0.190808995377 7 0.981627183448
-0.207911690818 7 0.978147600734
-0.224951054344 7 0.974370064785
-0.2419218956 7 0.970295726276
-0.258819045103 7 0.965925826289
-0.275637355817 7 0.961261695938
-0.292371704723 7 0.956304755963
-0.309016994375 7 0.951056516295
-0.325568154457 7 0.945518575599
-0.342020143326 7 0.939692620786
-0.358367949545 7 0.933580426497
-0.374606593416 7 0.927183854567
-0.390731128489 7 0.920504853452
-0.406736643076 7 0.913545457643
-0.422618261741 7 0.906307787037
-0.438371146789 7 0.898794046299
-0.45399049974 7 0.891006524188
-0.469471562786 7 0.882947592859
-0.484809620246 7 0.874619707139
-0.5 7 0.866025403784
-0.51503807491 7 0.857167300702
-0.529919264233 7 0.848048096156
-0.544639035015 7 0.838670567945
-0.559192903471 7 0.829037572555
-0.573576436351 7 0.819152044289
-0.587785252292 7 0.809016994375
-0.601815023152 7 0.798635510047
-0.615661475326 7 0.788010753607
-0.62932039105 7 0.777145961457
-0.642787609687 7 0.766044443119
-0.656059028991 7 0.754709580223
-0.669130606359 7 0.743144825477
-0.681998360062 7 0.731353701619
-0.694658370459 7 0.719339800339
-0.707106781187 7 0.707106781187
-0.719339800339 7 0.694658370459
-0.731353701619 7 0.681998360062
-0.743144825477 7 0.669130606359
-0.754709580223 7 0.656059028991
-0.766044443119 7 0.642787609687
-0.777145961457 7 0.62932039105
-0.788010753607 7 0.615661475326
-0.798635510047 7 0.601815023152
-0.809016994375 7 0.587785252292
-0.819152044289 7 0.573576436351
-0.829037572555 7 0.559192903471
-0.838670567945 7 0.544639035015
-0.848048096156 7 0.529919264233
-0.857167300702 7 0.51503807491
-0.866025403784 7 0.5
-0.874619707139 7 0.484809620246
-0.882947592859 7 0.469471562786
-0.891006524188 7 0.45399049974
-0.898794046299 7 0.438371146789
-0.906307787037 7 0.422618261741
-0.913545457643 7 0.406736643076
-0.920504853452 7 0.390731128489
-0.927183854567 7 0.374606593416
-0.933580426497 7 0.358367949545
-0.939692620786 7 0.342020143326
-0.945518575599 7 0.325568154457
-0.951056516295 7 0.309016994375
-0.956304755963 7 0.292371704723
-0.961261695938 7 0.275637355817
-0.965925826289 7 0.258819045103
-0.970295726276 7 0.2419218956
-0.974370064785 7 0.224951054344
-0.978147600734 7 0.207911690818
-0.981627183448 7 0.190808995377
-0.984807753012 7 0.173648177667
-0.987688340595 7 0.15643446504
-0.990268068742 7 0.13917310096
-0.992546151641 7 0.121869343405
-0.994521895368 7 0.104528463268
-0.996194698092 7 0.0871557427477
-0.99756405026 7 0.0697564737441
-0.998629534755 7 0.0523359562429
-0.999390827019 7 0.0348994967025
-0.999847695156 7 0.0174524064373
-1.0 7 -1.96067283991e-15
-0.999847695156 7 -0.0174524064373
-0.999390827019 7 -0.0348994967025
-0.998629534755 7 -0.0523359562429
-0.99756405026 7 -0.0697564737441
-0.996194698092 7 -0.0871557427477
-0.994521895368 7 -0.104528463268
-0.992546151641 7 -0.121869343405
-0.990268068742 7 -0.13917310096
-0.987688340595 7 -0.15643446504
-0.984807753012 7 -0.173648177667
-0.981627183448 7 -0.190808995377
-0.978147600734 7 -0.207911690818
-0.974370064785 7 -0.224951054344
-0.970295726276 7 -0.2419218956
-0.965925826289 7 -0.258819045103
-0.961261695938 7 -0.275637355817
-0.956304755963 7 -0.292371704723
-0.951056516295 7 -0.309016994375
-0.945518575599 7 -0.325568154457
-0.939692620786 7 -0.342020143326
-0.933580426497 7 -0.358367949545
-0.927183854567 7 -0.374606593416
-0.920504853452 7 -0.390731128489
-0.913545457643 7 -0.406736643076
-0.906307787037 7 -0.422618261741
-0.898794046299 7 -0.438371146789
-0.891006524188 7 -0.45399049974
-0.882947592859 7 -0.469471562786
-0.874619707139 7 -0.484809620246
-0.866025403784 7 -0.5
-0.857167300702 7 -0.51503807491
-0.848048096156 7 -0.529919264233
-0.838670567945 7 -0.544639035015
-0.829037572555 7 -0.559192903471
-0.819152044289 7 -0.573576436351
-0.809016994375 7 -0.587785252292
-0.798635510047 7 -0.601815023152
-0.788010753607 7 -0.615661475326
-0.777145961457 7 -0.62932039105
-0.766044443119 7 -0.642787609687
-0.754709580223 7 -0.656059028991
-0.743144825477 7 -0.669130606359
-0.731353701619 7 -0.681998360062
-0.719339800339 7 -0.694658370459
-0.707106781187 7 -0.707106781187
-0.694658370459 7 -0.719339800339
-0.681998360063 7 -0.731353701619
-0.669130606359 7 -0.743144825477
-0.656059028991 7 -0.754709580223
-0.642787609687 7 -0.766044443119
-0.62932039105 7 -0.777145961457
-0.615661475326 7 -0.788010753607
-0.601815023152 7 -0.798635510047
-0.587785252292 7 -0.809016994375
-0.573576436351 7 -0.819152044289
-0.559192903471 7 -0.829037572555
-0.544639035015 7 -0.838670567945
-0.529919264233 7 -0.848048096156
-0.51503807491 7 -0.857167300702
-0.5 7 -0.866025403784
-0.484809620246 7 -0.874619707139
-0.469471562786 7 -0.882947592859
-0.45399049974 7 -0.891006524188
-0.438371146789 7 -0.898794046299
-0.422618261741 7 -0.906307787037
-0.406736643076 7 -0.913545457643
-0.390731128489 7 -0.920504853452
-0.374606593416 7 -0.927183854567
-0.358367949545 7 -0.933580426497
-0.342020143326 7 -0.939692620786
-0.325568154457 7 -0.945518575599
-0.309016994375 7 -0.951056516295
-0.292371704723 7 -0.956304755963
-0.275637355817 7 -0.961261695938
-0.258819045103 7 -0.965925826289
-0.2419218956 7 -0.970295726276
-0.224951054344 7 -0.974370064785
-0.207911690818 7 -0.978147600734
-0.190808995377 7 -0.981627183448
-0.173648177667 7 -0.984807753012
-0.15643446504 7 -0.987688340595
-0.13917310096 7 -0.990268068742
-0.121869343405 7 -0.992546151641
-0.104528463268 7 -0.994521895368
-0.0871557427477 7 -0.996194698092
-0.0697564737441 7 -0.99756405026
-0.0523359562429 7 -0.998629534755
-0.0348994967025 7 -0.999390827019
-0.0174524064373 7 -0.999847695156
-3.42963001825e-15 7 -1.0
0.0174524064373 7 -0.999847695156
0.0348994967025 7 -0.999390827019
0.0523359562429 7 -0.998629534755
0.0697564737441 7 -0.99756405026
0.0871557427477 7 -0.996194698092
0.104528463268 7 -0.994521895368
0.121869343405 7 -0.992546151641
0.13917310096 7 -0.990268068742
0.15643446504 7 -0.987688340595
0.173648177667 7 -0.984807753012
0.190808995377 7 -0.981627183448
0.207911690818 7 -0.978147600734
0.224951054344 7 -0.974370064785
0.2419218956 7 -0.970295726276
0.258819045103 7 -0.965925826289
0.275637355817 7 -0.961261695938
0.292371704723 7 -0.956304755963
0.309016994375 7 -0.951056516295
0.325568154457 7 -0.945518575599
0.342020143326 7 -0.939692620786
0.358367949545 7 -0.933580426497
0.374606593416 7 -0.927183854567
0.390731128489 7 -0.920504853452
0.406736643076 7 -0.913545457643
0.422618261741 7 -0.906307787037
0.438371146789 7 -0.898794046299
0.45399049974 7 -0.891006524188
0.469471562786 7 -0.882947592859
0.484809620246 7 -0.874619707139
0.5 7 -0.866025403784
0.51503807491 7 -0.857167300702
0.529919264233 7 -0.848048096156
0.544639035015 7 -0.838670567945
0.559192903471 7 -0.829037572555
0.573576436351 7 -0.819152044289
0.587785252292 7 -0.809016994375
0.601815023152 7 -0.798635510047
0.615661475326 7 -0.788010753607
0.62932039105 7 -0.777145961457
0.642787609687 7 -0.766044443119
0.656059028991 7 -0.754709580223
0.669130606359 7 -0.743144825477
0.681998360062 7 -0.731353701619
0.694658370459 7 -0.719339800339
0.707106781187 7 -0.707106781187
0.719339800339 7 -0.694658370459
0.731353701619 7 -0.681998360062
0.743144825477 7 -0.669130606359
0.754709580223 7 -0.656059028991
0.766044443119 7 -0.642787609687
0.777145961457 7 -0.62932039105
0.788010753607 7 -0.615661475326
0.798635510047 7 -0.601815023152
0.809016994375 7 -0.587785252292
0.819152044289 7 -0.573576436351
0.829037572555 7 -0.559192903471
0.838670567945 7 -0.544639035015
0.848048096156 7 -0.529919264233
0.857167300702 7 -0.51503807491
0.866025403784 7 -0.5
0.874619707139 7 -0.484809620246
0.882947592859 7 -0.469471562786
0.891006524188 7 -0.45399049974
0.898794046299 7 -0.438371146789
0.906307787037 7 -0.422618261741
0.913545457643 7 -0.406736643076
0.920504853452 7 -0.390731128489
0.927183854567 7 -0.374606593416
0.933580426497 7 -0.358367949545
0.939692620786 7 -0.342020143326
0.945518575599 7 -0.325568154457
0.951056516295 7 -0.309016994375
0.956304755963 7 -0.292371704723
0.961261695938 7 -0.275637355817
0.965925826289 7 -0.258819045103
0.970295726276 7 -0.2419218956
0.974370064785 7 -0.224951054344
0.978147600734 7 -0.207911690818
0.981627183448 7 -0.190808995377
0.984807753012 7 -0.173648177667
0.987688340595 7 -0.15643446504
0.990268068742 7 -0.13917310096
0.992546151641 7 -0.121869343405
0.994521895368 7 -0.104528463268
0.996194698092 7 -0.0871557427477
0.99756405026 7 -0.0697564737441
0.998629534755 7 -0.0523359562429
0.999390827019 7 -0.0348994967025
0.999847695156 7 -0.0174524064373
1.0 8 -1.71450551881e-15
0.999847695156 8 0.0174524064373
0.999390827019 8 0.0348994967025
0.998629534755 8 0.0523359562429
0.99756405026 8 0.0697564737441
0.996194698092 8 0.0871557427477
0.994521895368 8 0.104528463268
0.992546151641 8 0.121869343405
0.990268068742 8 0.13917310096
0.987688340595 8 0.15643446504
0.984807753012 8 0.173648177667
0.981627183448 8 0.190808995377
0.978147600734 8 0.207911690818
0.974370064785 8 0.224951054344
0.970295726276 8 0.2419218956
0.965925826289 8 0.258819045103
0.961261695938 8 0.275637355817
0.956304755963 8 0.292371704723
0.951056516295 8 0.309016994375
0.945518575599 8 0.325568154457
0.939692620786 8 0.342020143326
0.933580426497 8 0.358367949545
0.927183854567 8 0.374606593416
0.920504853452 8 0.390731128489
0.913545457643 8 0.406736643076
0.906307787037 8 0.422618261741
0.898794046299 8 0.438371146789
0.891006524188 8 0.45399049974
0.882947592859 8 0.469471562786
0.874619707139 8 0.484809620246
0.866025403784 8 0.5
0.857167300702 8 0.51503807491
0.848048096156 8 0.529919264233
0.838670567945 8 0.544639035015
0.829037572555 8 0.559192903471
0.819152044289 8 0.573576436351
0.809016994375 8 0.587785252292
0.798635510047 8 0.601815023152
0.788010753607 8 0.615661475326
0.777145961457 8 0.62932039105
0.766044443119 8 0.642787609687
0.754709580223 8 0.656059028991
0.743144825477 8 0.669130606359
0.731353701619 8 0.681998360062
0.719339800339 8 0.694658370459
0.707106781187 8 0.707106781187
0.694658370459 8 0.719339800339
0.681998360062 8 0.731353701619
0.669130606359 8 0.743144825477
0.656059028991 8 0.754709580223
0.642787609687 8 0.766044443119
0.62932039105 8 0.777145961457
0.615661475326 8 0.788010753607
0.601815023152 8 0.798635510047
0.587785252292 8 0.809016994375
0.573576436351 8 0.819152044289
0.559192903471 8 0.829037572555
0.544639035015 8 0.838670567945
0.529919264233 8 0.848048096156
0.51503807491 8 0.857167300702
0.5 8 0.866025403784
0.484809620246 8 0.874619707139
0.469471562786 8 0.882947592859
0.45399049974 8 0.891006524188
0.438371146789 8 0.898794046299
